# .PCD v0.7 - Point Cloud Data file format
VERSION 0.7
FIELDS x y z intensity ring
SIZE 4 4 4 4 2
TYPE F F F F U
COUNT 1 1 1 1 1
WIDTH 1294
HEIGHT 1
VIEWPOINT 0 0 0 1 0 0 0
POINTS 1294
DATA ascii
2.4814386 4.5989099 -1.4002111 88 0
2.5266671 4.6807837 0.092846803 77 8
2.4964147 4.6228094 -1.2129362 84 1
2.5413611 4.704071 0.28020674 64 9
2.49436 4.6170716 -1.0200649 99 2
2.5482967 4.7149463 0.46889788 82 10
2.4888322 4.6030025 -0.82878989 71 3
2.5538282 4.7212348 0.65906948 59 11
2.5187485 4.6544476 -0.64980739 76 4
1.9946861 3.6844857 0.66359508 16 12
2.5193372 4.653595 -0.4629713 82 5
1.7110078 3.1591685 0.69836092 49 13
2.5328317 4.6746235 -0.27863666 92 6
1.4997891 2.7668753 0.726592 18 14
2.5375574 4.6794391 -0.092916615 89 7
1.3274587 2.4469137 0.74591655 34 15
2.4993219 4.5936146 -1.4012463 85 0
2.54108 4.6684222 0.092776999 76 8
2.5060136 4.6020861 -1.2097869 86 1
2.5539432 4.6881566 0.27978805 63 9
2.5123389 4.6117854 -1.0208282 96 2
2.5666475 4.7095208 0.46924651 82 10
2.3100929 4.2370105 -0.76433885 100 3
2.5655389 4.7035785 0.65785074 54 11
2.379041 4.359849 -0.60983425 78 4
2.0065899 3.6757662 0.66328222 16 12
2.535567 4.6447721 -0.4629713 81 5
1.7192013 3.1480079 0.69721615 51 13
2.5424316 4.6534839 -0.27790397 89 6
1.5122428 2.7667525 0.72794163 21 14
2.5548344 4.672308 -0.092951514 91 7
1.3322841 2.4354851 0.74384594 34 15
2.5153406 4.5848627 -1.4012463 82 0
2.5592835 4.6630301 0.092846803 83 8
2.5183101 4.5864782 -1.2079873 89 1
2.5645218 4.6687098 0.27916002 63 9
2.5284207 4.6029882 -1.0208282 99 2
2.5811534 4.6970396 0.46889788 82 10
2.323916 4.2271905 -0.76402605 100 3
2.5733311 4.6789403 0.65565711 57 11
2.3387442 4.2506428 -0.5956974 112 4
2.018455 3.6670094 0.66296935 15 12
2.3509662 4.2710958 -0.4265402 86 5
1.7311258 3.1437078 0.69759774 50 13
2.5268586 4.5868506 -0.2744498 98 6
1.5153066 2.7495103 0.72479236 18 14
2.570164 4.6616096 -0.092916615 85 7
1.3463763 2.4409692 0.74695182 34 15
2.5313284 4.576055 -1.4012463 82 0
2.5774829 4.657567 0.092916615 80 8
2.5361934 4.5810685 -1.208887 86 1
2.5788667 4.6562362 0.27895069 63 9
2.5349598 4.5769606 -1.017012 99 2
2.5975325 4.6880016 0.46889788 80 10
2.3386588 4.2190518 -0.76402605 92 3
2.592535 4.675138 0.65638834 47 11
2.3371956 4.212944 -0.59155381 100 4
2.0254924 3.6495774 0.66109216 16 12
2.3610277 4.2541523 -0.42566866 100 5
1.7439957 3.141078 0.69836092 50 13
2.3682868 4.2637239 -0.25560883 136 6
1.5230025 2.740797 0.72389257 16 14
2.4105585 4.3362608 -0.086598843 79 7
1.3520714 2.43119 0.74539888 32 15
2.5435236 4.560442 -1.3991758 82 0
2.5644934 4.5961542 0.091869473 75 8
2.5483687 4.565382 -1.2070874 86 1
2.5951056 4.6472054 0.27895069 66 9
2.5528364 4.5715117 -1.0177752 92 2
2.6080496 4.6684704 0.467852 78 10
2.3524072 4.2091393 -0.76371318 95 3
2.6078711 4.6643262 0.65614462 57 11
2.3567338 4.2134223 -0.59277254 90 4
2.0343604 3.6355903 0.6598407 15 12
2.3661332 4.2284989 -0.42392552 100 5
1.7559078 3.1366849 0.69874257 55 13
2.3860846 4.2606583 -0.25592285 136 6
1.5316074 2.7337642 0.72344261 15 14
2.3767941 4.2406011 -0.084853604 100 7
1.355826 2.41803 0.74281067 33 15
2.5537469 4.5414314 -1.3960699 85 0
2.3932564 4.2542915 0.085202649 112 8
2.5652463 4.5581565 -1.2075373 82 1
2.4153421 4.2900414 0.25801629 69 9
2.5687797 4.562572 -1.0177752 92 2
2.6204176 4.6523952 0.46715477 80 10
2.3612683 4.1905756 -0.76183593 100 3
2.6280372 4.6621113 0.65711957 61 11
2.3762994 4.2138166 -0.59399122 100 4
2.0499513 3.6336274 0.66077924 13 12
2.3779433 4.2150073 -0.42340261 100 5
1.7629873 3.123697 0.69721615 51 13
2.3871918 4.2279563 -0.25445744 126 6
1.5478504 2.7402785 0.726592 22 14
2.3994534 4.2462058 -0.085132837 100 7
1.3623552 2.40992 0.74177545 33 15
2.5714886 4.5358515 -1.3971052 88 0
2.402174 4.2354741 0.084993221 104 8
2.5772963 4.5423942 -1.2057377 82 1
2.4184701 4.2607412 0.25676021 98 9
2.586628 4.556993 -1.0185385 99 2
2.6386106 4.6466846 0.4675034 80 10
2.3768585 4.1840243 -0.7621488 100 3
2.6374283 4.6408291 0.65541339 52 11
2.3900142 4.2037702 -0.5937475 92 4
2.0655532 3.6316001 0.66171783 15 12
2.3936279 4.2084122 -0.42357689 100 5
1.7709668 3.1124055 0.69607127 50 13
2.4029245 4.2213326 -0.25456211 130 6
1.5506567 2.7230041 0.72344261 14 14
2.4162397 4.2412801 -0.085202649 100 7
1.3726729 2.4085062 0.74281067 36 15
2.5873075 4.5268474 -1.3971052 85 0
2.4189279 4.230535 0.085063025 107 8
2.589263 4.5266056 -1.2039381 84 1
2.4263854 4.2401381 0.25602752 94 9
2.5986197 4.5411196 -1.017012 100 2
2.6567953 4.6409025 0.467852 80 10
2.3914461 4.1757035 -0.7621488 95 3
2.6506524 4.6264262 0.65468216 61 11
2.3977647 4.1833453 -0.59204131 97 4
2.0742846 3.6175151 0.66046637 15 12
2.4122646 4.2069459 -0.42427412 100 5
1.7818211 3.106204 0.69607127 50 13
2.4196343 4.216383 -0.25477144 137 6
1.5620909 2.7209561 0.72434247 23 14
2.429039 4.229351 -0.085132837 100 7
1.3810724 2.4036996 0.74281067 34 15
2.60309 4.5177898 -1.3971052 85 0
2.4336815 4.222065 0.085063025 120 8
2.6099167 4.52598 -1.2061877 86 1
2.4391723 4.2281837 0.25581816 97 9
2.6115091 4.5269208 -1.0158671 99 2
2.6709864 4.62815 0.4675034 78 10
2.406996 4.1690402 -0.76246166 95 3
2.6727393 4.6274614 0.65614462 57 11
2.4163244 4.1818256 -0.59301627 100 4
2.0789919 3.5965703 0.65796345 16 12
2.424942 4.1950498 -0.42392552 100 5
1.7936363 3.1016641 0.69645286 53 13
2.4253354 4.1923528 -0.25382942 125 6
1.5637709 2.7019932 0.72074324 15 14
2.4357729 4.2070012 -0.084853604 100 7
1.3913904 2.4022076 0.74384594 36 15
2.6130235 4.498652 -1.3939995 85 0
2.4524245 4.2204599 0.085202649 110 8
2.6227603 4.5117884 -1.2048379 84 1
2.4539177 4.2196426 0.25581816 94 9
2.6253223 4.5143824 -1.0151039 100 2
2.6831191 4.6119094 0.46680617 78 10
2.4245143 4.1657357 -0.76340026 91 3
2.695869 4.6301112 0.65785074 54 11
2.4229147 4.1596427 -0.59106636 100 4
2.0935216 3.5927048 0.65858912 15 12
2.4355576 4.1796746 -0.42322829 100 5
1.8084053 3.1021702 0.69797933 51 13
2.4490116 4.199388 -0.25477144 117 6
1.5790846 2.7066178 0.72344261 14 14
2.4524562 4.2019286 -0.084923409 100 7
1.3919752 2.3839896 0.73970485 34 15
2.62676 4.4861689 -1.3929642 85 0
2.459053 4.1980715 0.084923409 100 8
2.6424358 4.5093303 -1.2066375 84 1
2.4726739 4.2179432 0.25623688 97 9
2.6430516 4.5085773 -1.0158671 100 2
2.6911345 4.5887675 0.46541166 83 10
2.428046 4.1385045 -0.75995874 100 3
2.7049823 4.6086879 0.65614462 56 11
2.4374173 4.1511612 -0.59106636 100 4
2.103049 3.5802646 0.65765053 16 12
2.4460969 4.1642747 -0.42253101 100 5
1.8092772 3.078912 0.6941632 53 13
2.462642 4.1890926 -0.25466678 122 6
1.5914872 2.7061281 0.72479236 22 14
2.4650819 4.1898947 -0.084853604 100 7
1.3973482 2.3741219 0.73815197 31 15
2.6443665 4.4802999 -1.3939995 85 0
2.4716599 4.1860175 0.084853604 101 8
2.649241 4.4849772 -1.2025884 89 1
2.484617 4.2062802 0.25602752 94 9
2.6627674 4.5060854 -1.0173936 100 2
2.7071371 4.5793452 0.46541166 82 10
2.4454954 4.1351047 -0.76089734 92 3
2.7149873 4.5889673 0.65468216 61 11
2.456949 4.1511683 -0.59228504 95 4
2.1159158 3.5749719 0.65796345 15 12
2.4636645 4.1608534 -0.42305395 100 5
1.8140095 3.0624433 0.69187343 55 13
2.4741943 4.1753163 -0.25435278 133 6
1.5939683 2.6888216 0.72164303 15 14
2.4799836 4.1834168 -0.08488851 100 7
1.4071839 2.3727987 0.73918724 32 15
2.6599908 4.4710412 -1.3939995 88 0
2.4875739 4.1812348 0.084923409 100 8
2.6650929 4.4778438 -1.2030382 84 1
2.4941728 4.189003 0.25550416 82 9
2.6764722 4.4933887 -1.0166303 99 2
2.7271841 4.5767145 0.46610889 82 10
2.4571691 4.12358 -0.76027155 91 3
2.7271416 4.5748229 0.65395093 54 11
2.4676521 4.1378827 -0.59155381 100 4
2.1304069 3.570956 0.65858912 16 12
2.4832783 4.1607833 -0.42392552 100 5
1.8281803 3.0631535 0.69339991 53 13
2.4839323 4.1602287 -0.25393409 133 6
1.6008768 2.6801755 0.72074324 19 14
2.4925187 4.1713018 -0.084818691 100 7
1.4194232 2.3745043 0.74125779 32 15
2.6767881 4.4655108 -1.3950348 88 0
2.5000961 4.1690965 0.084853604 101 8
2.6807084 4.468513 -1.2030382 84 1
2.5056977 4.1751332 0.25519016 99 9
2.6832752 4.4710226 -1.0135775 100 2
2.7423472 4.5676451 0.46610889 82 10
2.4695148 4.1115899 -0.75964588 92 3
2.7451382 4.5686793 0.65443844 52 11
2.4820802 4.1292443 -0.59155381 100 4
2.1336963 3.5482628 0.6557734 16 12
2.4926505 4.1435537 -0.42305395 100 5
1.8429091 3.063483 0.69492638 53 13
2.5025573 4.1583786 -0.25435278 133 6
1.603186 2.6628845 0.71759391 18 14
2.5060315 4.1608634 -0.084783792 100 7
1.4237158 2.3629162 0.73918724 32 15
2.6871424 4.4457493 -1.3919289 88 0
2.5187724 4.1671896 0.084993221 101 8
2.6972997 4.4607954 -1.2034882 86 1
2.5202556 4.1663618 0.25519016 91 9
2.6976125 4.4577975 -1.0128142 100 2
2.7528803 4.5473361 0.46506307 82 10
2.4835439 4.100822 -0.75933295 100 3
2.7590113 4.5556731 0.65395093 49 11
2.4964797 4.1205544 -0.59155381 100 4
2.1409507 3.5323458 0.65420902 16 12
2.5029666 4.1280131 -0.42235672 100 5
1.8561622 3.0600646 0.69568962 51 13
2.519855 4.1525927 -0.25456211 133 6
1.6149573 2.6603229 0.71849376 18 14
2.5122383 4.1384158 -0.084504552 100 7
1.4289465 2.3529785 0.7376343 34 15
2.7016387 4.4346929 -1.3914113 93 0
2.5257027 4.1442695 0.084713981 100 8
2.7146447 4.4525437 -1.2039381 84 1
2.5368636 4.1609483 0.2553995 91 9
2.7152002 4.4517064 -1.0135775 100 2
2.7666605 4.5342979 0.46471441 86 10
2.500932 4.0971856 -0.76027155 100 3
2.7705188 4.5370593 0.65273225 57 11
2.5115647 4.1113772 -0.59155381 100 4
2.1604755 3.5366514 0.65639907 16 12
2.5173619 4.1192508 -0.42235672 100 5
1.8565915 3.0368168 0.69187343 56 13
2.5343342 4.1437716 -0.25456211 130 6
1.6303366 2.6646426 0.72119313 16 14
2.5298007 4.134738 -0.084609263 100 7
1.4341252 2.3430336 0.73608136 32 15
2.718112 4.4268823 -1.3919289 88 0
2.5373383 4.1324635 0.084644176 110 8
2.7191966 4.4269114 -1.199439 78 1
2.5545108 4.1571722 0.25571349 82 9
2.7327783 4.4455476 -1.0143408 100 2
2.7856035 4.5297036 0.46523735 88 10
2.5082977 4.078773 -0.75839436 100 3
2.7793093 4.5177016 0.65126985 63 11
2.5272648 4.1064076 -0.59204131 100 4
2.1697016 3.5240417 0.65546048 16 12
2.5285916 4.1053481 -0.42183378 100 5
1.8625342 3.0239565 0.69034702 55 13
2.5365355 4.1166406 -0.25341073 119 6
1.6330292 2.6492677 0.71849376 18 14
2.5484178 4.13269 -0.084748887 100 7
1.4463516 2.3445902 0.73815197 32 15
2.7327783 4.4178438 -1.3919289 88 0
2.5517488 4.1235805 0.084644176 104 8
2.7325783 4.4140801 -1.1985393 78 1
2.5616446 4.1363444 0.2549808 97 9
2.7454391 4.4331217 -1.0135775 100 2
2.7995591 4.5187483 0.46506307 83 10
2.5245984 4.0733523 -0.75902009 100 3
2.7908769 4.5012245 0.6502949 69 11
2.5332136 4.0840645 -0.59009141 97 4
2.1851132 3.5214822 0.65639907 16 12
2.5439565 4.0981898 -0.42200807 100 5
1.8751485 3.0207729 0.69111025 53 13
2.5508909 4.1077609 -0.25341073 127 6
1.6412394 2.6418955 0.7180438 20 14
2.5586047 4.1169758 -0.084609263 100 7
1.4555476 2.3411672 0.73866957 33 15
2.7489512 4.4077983 -1.3919289 85 0
2.5703592 4.1214356 0.084783792 100 8
2.7520969 4.411128 -1.200339 84 1
2.5739536 4.1239882 0.25477144 86 9
2.75335 4.409708 -1.0105245 100 2
2.8171568 4.5101471 0.46523735 93 10
2.5416076 4.0674205 -0.75964588 100 3
2.8065734 4.4914541 0.6502949 72 11
2.5474534 4.0751977 -0.59009141 100 4
2.1921546 3.50546 0.65483475 16 12
2.5593045 4.0909739 -0.42218241 100 5
1.8945392 3.027194 0.6941632 55 13
2.5701683 4.1051559 -0.25382942 134 6
1.6457387 2.627605 0.71579432 18 14
2.5687153 4.1012397 -0.084469646 106 7
1.4606345 2.3311608 0.73711663 31 15
2.7571254 4.3867259 -1.3883054 93 0
2.5875776 4.1153722 0.084853604 100 8
2.7682452 4.4010119 -1.200339 84 1
2.5922418 4.1195984 0.25508547 77 9
2.7687271 4.4000692 -1.0105245 100 2
2.8265157 4.4901686 0.46419147 91 10
2.5599978 4.0652122 -0.76089734 100 3
2.8208995 4.4777789 0.64980739 66 11
2.5644908 4.0691915 -0.59057891 100 4
2.1955059 3.482363 0.6520189 16 12
2.5700288 4.0748258 -0.42148519 100 5
1.900906 3.0139196 0.69263667 55 13
2.58022 4.0894017 -0.25341073 132 6
1.6600997 2.630085 0.7180438 19 14
2.5826616 4.0901074 -0.084434748 100 7
1.4671049 2.3225255 0.73608136 32 15
2.7742183 4.3782234 -1.388823 93 0
2.5955048 4.0961804 0.084644176 100 8
2.783592 4.3913217 -1.200339 84 1
2.6076767 4.1122112 0.25519016 89 9
2.7869377 4.393208 -1.0112877 100 2
2.6454518 4.1685672 0.43194386 86 10
2.5685306 4.0457935 -0.75902009 100 3
2.828002 4.4544973 0.64785749 57 11
2.5808067 4.0635672 -0.59106636 100 4
2.2108271 3.4796793 0.65295756 16 12
2.5853069 4.0675106 -0.42165947 100 5
1.9077255 3.0003057 0.69111025 55 13
2.5973344 4.0832887 -0.25362006 132 6
1.6644994 2.615761 0.71579432 18 14
2.5979974 4.0827537 -0.084469646 100 7
1.4720901 2.3125012 0.73452848 33 15
2.7876816 4.367372 -1.3883054 94 0
2.6076355 4.083724 0.084574364 100 8
2.7926102 4.3717237 -1.1976395 75 1
2.6241632 4.1064506 0.2553995 86 9
2.8014901 4.3839426 -1.0112877 100 2
2.642091 4.1329117 0.42915487 100 10
2.5798035 4.033926 -0.75839436 97 3
2.6285007 4.1084962 0.59886599 34 11
2.5949767 4.054533 -0.59106636 100 4
2.2272213 3.4785945 0.65420902 16 12
2.5987802 4.0589156 -0.42165947 100 5
1.9134282 2.9873505 0.68958372 55 13
2.6033189 4.062881 -0.25288737 129 6
1.6742154 2.6118681 0.71624422 21 14
2.6176276 4.0820785 -0.084644176 100 7
1.479111 2.3057225 0.73401088 32 15
2.8050005 4.3608627 -1.3893406 94 0
2.6218736 4.0745974 0.084574364 100 8
2.8078523 4.3619499 -1.1976395 78 1
2.6298318 4.0838313 0.25456211 97 9
2.818903 4.3774376 -1.012051 100 2
2.6532638 4.1186395 0.42863193 100 10
2.593868 4.0248966 -0.75839436 100 3
2.6471298 4.1059694 0.599841 39 11
2.5994318 4.0304356 -0.58887273 92 4
2.2350657 3.4641602 0.65295756 24 12
2.6161721 4.0548425 -0.42218241 100 5
1.9238452 2.9806528 0.68958372 55 13
2.6229031 4.0621576 -0.25341073 127 6
1.6769776 2.5961866 0.71354479 19 14
2.6296911 4.0695562 -0.084574364 100 7
1.491346 2.3070345 0.73608136 31 15
2.8181036 4.3478041 -1.3883054 100 0
2.6404316 4.0721326 0.084713981 100 8
2.8241229 4.353756 -1.1980894 79 1
2.6440699 4.0746274 0.25456211 94 9
2.8256149 4.3543959 -1.008998 100 2
2.8878462 4.4485965 0.46401718 100 10
2.6122062 4.0224442 -0.75964588 100 3
2.6819928 4.1283326 0.60447198 20 11
2.613482 4.0213394 -0.58887273 92 4
2.2353015 3.4381194 0.64951599 13 12
2.6270535 4.0406737 -0.42165947 97 5
1.938519 2.9805028 0.69111025 53 13
2.6359749 4.0513048 -0.25330606 117 6
1.6860306 2.5903168 0.71354479 20 14
2.6395173 4.0536489 -0.084434748 100 7
1.5046616 2.3099084 0.73866957 33 15
2.8290386 4.33147 -1.3862349 99 0
2.6524436 4.0595422 0.084644176 110 8
2.8414347 4.3471346 -1.1989893 79 1
2.6582782 4.065372 0.25456211 99 9
2.8397243 4.3428626 -1.0086164 100 2
2.9000866 4.4334865 0.46349424 93 10
2.6240671 4.0099959 -0.75902009 100 3
2.8475163 4.3498049 0.63835168 65 11
2.6285915 4.0138516 -0.58911645 97 4
2.2462058 3.4286437 0.64920312 15 12
2.6334982 4.0198131 -0.4204393 100 5
1.9489118 2.9737172 0.69111025 53 13
2.6533868 4.0470891 -0.25362006 122 6
1.6971991 2.5876749 0.71444458 21 14
2.6481647 4.0360508 -0.084260218 100 7
1.4968141 2.280417 0.730905 29 15
2.8398941 4.3151126 -1.3841642 100 0
2.6599994 4.0402379 0.084434748 104 8
2.8544469 4.3339353 -1.1980894 79 1
2.6739411 4.0598712 0.25477144 94 9
2.8570282 4.3362017 -1.0093796 100 2
2.9133506 4.4200096 0.46314558 97 10
2.6315234 3.9909174 -0.7571429 100 3
2.8768935 4.3613801 0.64152032 48 11
2.6440749 4.0084267 -0.58960396 100 4
2.2640903 3.4310694 0.65108031 15 12
2.6475132 4.0105968 -0.4204393 100 5
1.9549534 2.9603426 0.68958372 53 13
2.6696987 4.0411363 -0.25382942 134 6
1.703622 2.5787811 0.71354479 21 14
2.6670482 4.0355883 -0.084434748 100 7
1.5064993 2.2786634 0.73194027 31 15
2.8584545 4.3121142 -1.3862349 100 0
2.6733837 4.0313945 0.084434748 101 8
2.8623405 4.3147011 -1.19539 79 1
2.6918073 4.0576386 0.25519016 97 9
2.8713911 4.3267045 -1.0093796 100 2
2.930197 4.4136434 0.46349424 93 10
2.6447444 3.9821682 -0.7571429 100 3
2.8715661 4.3220549 0.63713294 39 11
2.6661403 4.0128641 -0.59155381 114 4
2.2765498 3.4251869 0.65139318 13 12
2.6619024 4.0034533 -0.42061362 100 5
1.9604098 2.9473052 0.6880573 55 13
2.6742344 4.0189571 -0.25299203 136 6
1.7143239 2.5763617 0.71444458 20 14
2.6837394 4.0317163 -0.084539458 100 7
1.5140469 2.2736554 0.73194027 31 15
2.8770301 4.3090372 -1.3883054 100 0
2.6867368 4.0225072 0.084434748 104 8
2.8766322 4.3051858 -1.19539 79 1
2.6926348 4.0282927 0.25393409 94 9
2.8857222 4.3171592 -1.0093796 100 2
2.9448161 4.4039025 0.46349424 91 10
2.6645241 3.983228 -0.75902009 100 3
2.8671136 4.2844629 0.63298941 40 11
2.6646705 3.9804399 -0.5881415 101 4
2.2851956 3.4122946 0.65045458 16 12
2.6784904 3.9995697 -0.42113656 100 5
1.9658026 2.9342635 0.68653083 53 13
2.6830986 4.0034313 -0.25257334 128 6
1.7135407 2.5557938 0.71039551 21 14
2.6922281 4.014019 -0.084364928 100 7
1.5262793 2.2747738 0.73401088 31 15
2.8898985 4.2957616 -1.3872701 99 0
2.7029955 4.0164213 0.084504552 116 8
2.8938184 4.2983522 -1.1962898 82 1
2.7089121 4.0221815 0.25414345 97 9
2.8941951 4.2972884 -1.00709 100 2
2.9579451 4.3902912 0.46314558 93 10
2.6762033 3.9706275 -0.75839436 100 3
2.8898208 4.2859492 0.63469559 39 11
2.6785498 3.9711134 -0.5881415 100 4
2.2893565 3.3928363 0.64826447 16 12
2.6913185 3.9885459 -0.42096224 100 5
1.9848195 2.9404018 0.68958372 53 13
2.7048819 4.0056272 -0.25330606 139 6
1.7257223 2.5546424 0.71174514 22 14
2.7039828 4.0012841 -0.084295124 109 7
1.5320472 2.2662311 0.73297554 31 15
2.8962038 4.2728558 -1.383129 100 0
2.7181206 4.0086174 0.084539458 118 8
2.9109936 4.2914491 -1.1971896 84 1
2.7274227 4.019311 0.25456211 102 9
2.909179 4.287159 -1.00709 99 2
2.9687755 4.3733459 0.46244836 91 10
2.690048 3.9612608 -0.75839436 100 3
2.9003034 4.2692671 0.63372064 36 11
2.6946259 3.9650235 -0.58862901 100 4
2.2989655 3.381557 0.6476388 17 12
2.6985047 3.9692407 -0.41991636 100 5
1.9950722 2.933455 0.68958372 55 13
2.7154763 3.9912074 -0.25299203 137 6
1.7346299 2.5486026 0.71174514 24 14
2.7168093 3.9901671 -0.084260218 100 7
1.5366853 2.2560797 0.73142266 33 15
2.9089212 4.2595301 -1.3820938 96 0
2.7332253 4.0007553 0.084574364 115 8
2.923758 4.2780437 -1.1962898 79 1
2.7403061 4.0081196 0.25445744 108 9
2.9263391 4.280221 -1.0078532 100 2
2.9873986 4.3678894 0.4629713 100 10
2.6993983 3.9453247 -0.7571429 100 3
2.9084578 4.24929 0.63225818 34 11
2.7118156 3.9605062 -0.58936024 107 4
2.3118722 3.3751402 0.6479516 16 12
2.714596 3.9630835 -0.42026496 100 5
2.0030782 2.9232352 0.68882048 55 13
2.7282639 3.9800563 -0.25288737 129 6
1.7446182 2.5441389 0.7121951 27 14
2.7318494 3.9823103 -0.084295124 100 7
1.5434587 2.2491086 0.730905 31 15
2.9303436 4.2588983 -1.3851995 99 0
2.738101 3.9780145 0.084295124 104 8
2.9364619 4.2646022 -1.19539 84 1
2.7576802 4.0034628 0.25477144 105 9
2.9397826 4.266232 -1.00709 100 2
3.001498 4.3557935 0.46279699 91 10
2.7109103 3.9326258 -0.75651717 100 3
2.914259 4.226038 0.63030833 40 11
2.7222431 3.9461136 -0.58862901 104 4
2.3180287 3.3589208 0.64638728 16 12
2.7268388 3.9498289 -0.41991636 100 5
2.0070872 2.9061801 0.68653083 53 13
2.7416971 3.9683876 -0.2527827 134 6
1.7534878 2.5380337 0.7121951 21 14
2.7480085 3.9760394 -0.084364928 100 7
1.5491035 2.2405288 0.72986972 31 15
2.9481344 4.2513051 -1.3862349 59 0
2.7549453 3.9712362 0.084364928 113 8
2.9442945 4.2426047 -1.1922406 72 1
2.7655003 3.9834857 0.25414345 105 9
2.9531586 4.2522035 -1.0063267 99 2
3.0197144 4.3480363 0.46314558 93 10
2.7253051 3.9226639 -0.75651717 100 3
2.9217973 4.2039185 0.62860215 45 11
2.7321541 3.9295902 -0.58765399 100 4
2.3359649 3.3585105 0.6479516 15 12
2.751538 3.9545279 -0.42148519 100 5
2.0199678 2.9020271 0.68729407 56 13
2.7573655 3.9599504 -0.25288737 130 6
1.7549841 2.5203948 0.70904577 21 14
2.7614193 3.9643006 -0.08433003 100 7
1.5617223 2.2411761 0.73194027 31 15
2.9570553 4.2309709 -1.383129 39 0
2.7740648 3.9676681 0.084504552 101 8
2.9642932 4.2381716 -1.1940403 45 1
2.7748103 3.9672601 0.25372472 99 9
2.9612277 4.2322197 -1.0040369 96 2
3.0379148 4.3402047 0.46349424 93 10
2.7464633 3.9223571 -0.75839436 100 3
2.9383235 4.194808 0.62884587 43 11
2.7458518 3.9200313 -0.58765399 100 4
2.340872 3.3406298 0.64607441 16 12
2.7607512 3.9383721 -0.4207879 94 5
2.0345936 2.9013886 0.68882048 53 13
2.7723176 3.9519365 -0.25299203 136 6
1.7648898 2.5158489 0.70949566 21 14
2.7694981 3.9464521 -0.0841555 100 7
1.5695366 2.2357106 0.73194027 31 15
2.9677348 4.2164016 -1.3815762 61 0
2.7872059 3.9584477 0.084504552 100 8
2.9828217 4.2346907 -1.1958399 67 1
2.7925529 3.9645677 0.25414345 102 9
2.9718544 4.2175612 -1.0028921 82 2
3.047698 4.3235936 0.46279699 88 10
2.7549026 3.9067695 -0.7571429 100 3
2.9510748 4.1834183 0.62860215 46 11
2.7622697 3.9157698 -0.58838522 90 4
2.3473806 3.3263938 0.64482296 16 12
2.764605 3.9161737 -0.41939342 91 5
2.0430708 2.8930225 0.68843889 50 13
2.7865596 3.9443541 -0.25309673 138 6
1.7676003 2.5020249 0.70724612 19 14
2.7825708 3.9372456 -0.0841555 100 7
1.570249 2.2210302 0.72883451 29 15
2.9839342 4.2096901 -1.3826115 59 0
2.7933784 3.9393952 0.084295124 104 8
2.994592 4.2215977 -1.1949401 60 1
2.8109956 3.9613128 0.25456211 94 9
2.9710531 4.1868696 -0.99793106 92 2
3.0527935 4.3004651 0.46140248 88 10
2.7632673 3.891171 -0.75589144 100 3
2.9545856 4.1590433 0.62640852 48 11
2.7770729 3.9077215 -0.58862901 48 4
2.3612676 3.3213987 0.64544868 15 12
2.7817214 3.911371 -0.41991636 97 5
2.0458269 2.8766317 0.68614918 49 13
2.8007829 3.936718 -0.2532014 137 6
1.7831038 2.5053654 0.70994556 19 14
2.7986162 3.9307675 -0.084225312 100 7
1.5757513 2.2123878 0.72779918 30 15
2.9937296 4.1908646 -1.3800232 40 0
2.8047869 3.9263668 0.084225312 101 8
3.0002451 4.1984353 -1.1913409 60 1
2.8248069 3.9514756 0.25456211 86 9
2.9475534 4.1216545 -0.98495609 100 2
3.0720119 4.2941093 0.46192542 86 10
2.7752101 3.8778045 -0.75526565 100 3
2.9563761 4.1309476 0.62372732 50 11
2.7999418 3.9109156 -0.59057891 69 4
2.3751466 3.3163486 0.64607441 15 12
2.7965174 3.9032571 -0.42009068 100 5
2.05407 2.865922 0.68538594 47 13
2.804718 3.9118187 -0.25225934 135 6
1.7888665 2.4940629 0.70859587 24 14
2.8193121 3.9307246 -0.084434748 100 7
1.5800864 2.2021649 0.7262463 31 15
3.0128551 4.1866598 -1.3820938 52 0
2.8238332 3.9225509 0.084364928 107 8
3.0099175 4.1795044 -1.1890913 55 1
2.8346021 3.934613 0.25414345 91 9
2.8919194 4.014173 -0.96167743 100 2
3.0881484 4.2849751 0.46209973 72 10
2.7887287 3.8680942 -0.75526565 100 3
2.9645309 4.1104236 0.62226492 52 11
2.8003185 3.8813095 -0.58765399 56 4
2.3826623 3.3012137 0.64482296 15 12
2.8101261 3.893471 -0.42009068 100 5
2.0640607 2.8587348 0.68538594 46 13
2.8171871 3.9003844 -0.25215468 141 6
1.7918557 2.4799051 0.70634633 22 14
2.83253 3.9187441 -0.084399842 103 7
1.5926745 2.202621 0.72831684 29 15
3.0263162 4.1745543 -1.3815762 63 0
2.8398554 3.9159086 0.084434748 100 8
3.0290668 4.175281 -1.1908909 54 1
2.8436258 3.9182291 0.25372472 99 9
2.8805437 3.9690981 -0.95328182 100 2
3.1019156 4.2725577 0.46192542 63 10
2.8045366 3.8615322 -0.75589144 100 3
2.9846938 4.1080804 0.6234836 61 11
2.8150163 3.8731177 -0.58789778 48 4
2.3883622 3.2848883 0.64325857 15 12
2.8295574 3.8916962 -0.42096224 100 5
2.080955 2.8610389 0.68767565 43 13
2.8366594 3.8986022 -0.25267801 143 6
1.7970603 2.468909 0.70499665 18 14
2.8379509 3.8975167 -0.0841555 100 7
1.6014913 2.1986091 0.72883451 30 15
3.0363116 4.1577253 -1.3795056 46 0
2.8535082 3.9059711 0.084434748 116 8
3.0470736 4.1694016 -1.1922406 39 1
2.8619998 3.9147294 0.25414345 94 9
2.8364458 3.879776 -0.93420094 100 2
3.1179876 4.2633114 0.46209973 86 10
2.8273308 3.8644722 -0.75839436 100 3
3.0013597 4.100842 0.6239711 72 11
2.8343832 3.8712752 -0.58911645 51 4
2.3963137 3.27175 0.64232004 16 12
2.8337076 3.8689356 -0.41956773 100 5
2.0851271 2.84584 0.68576753 39 13
2.849071 3.8870649 -0.25257334 133 6
1.8068204 2.4641919 0.70544654 21 14
2.8515375 3.8875873 -0.0841555 100 7
1.6011556 2.1821032 0.72521096 31 15
3.0542417 4.1517687 -1.3810586 88 0
2.8623831 3.8895447 0.084295124 116 8
3.0650737 4.1634483 -1.1935904 79 1
2.8756485 3.9047143 0.25414345 91 9
2.8453155 3.8635268 -0.93267435 100 2
3.121032 4.236361 0.46035662 70 10
2.8314269 3.8418589 -0.75589144 100 3
3.0203693 4.0967307 0.62494606 80 11
2.8490565 3.862956 -0.58936024 56 4
2.410064 3.2665446 0.64294571 15 12
2.8448291 3.8558149 -0.41921914 100 5
2.0892196 2.8306453 0.68385947 42 13
2.8661804 3.8819172 -0.25288737 135 6
1.8177261 2.4610054 0.70634633 21 14
2.8639035 3.8760011 -0.084120601 100 7
1.6041702 2.1702862 0.72314042 31 15
3.0710146 4.144187 -1.3820938 100 0
2.8735607 3.8763173 0.084225312 107 8
3.0726247 4.1433311 -1.1908909 79 1
2.8909616 3.8983648 0.25435278 89 9
2.8669739 3.864608 -0.93534577 113 2
3.1381745 4.2286415 0.46070525 97 10
2.840111 3.8256068 -0.75463998 100 3
3.0180821 4.0638499 0.62153369 66 11
2.8613389 3.8513947 -0.58911645 79 4
2.4267726 3.2664635 0.64451009 16 12
2.8677795 3.8586531 -0.42061362 100 5
2.0897176 2.8107307 0.68080652 45 13
2.8725612 3.8622742 -0.25225934 129 6
1.8309591 2.4608989 0.70814598 20 14
2.8803227 3.871295 -0.084225312 100 7
1.617125 2.1727035 0.72572863 30 15
3.0808406 4.1272488 -1.3800232 87 0
2.8899884 3.8715734 0.08433003 118 8
3.0816827 4.1268744 -1.1890913 82 1
2.9021585 3.8850513 0.25414345 91 9
2.8616421 3.8294151 -0.92923987 100 2
3.1338303 4.1921282 0.45791626 65 10
2.8622427 3.8288252 -0.7571429 100 3
3.031539 4.0538216 0.62153369 57 11
2.865772 3.8307571 -0.58741027 55 4
2.4346101 3.2532275 0.6435715 15 12
2.878844 3.8454282 -0.42026496 100 5
2.0990274 2.8037848 0.68080652 44 13
2.8877485 3.8559232 -0.25246868 130 6
1.8274251 2.439218 0.70364696 19 14
2.8962181 3.8644168 -0.084295124 100 7
1.6293343 2.1732285 0.72779918 30 15
3.0968308 4.1200986 -1.3810586 96 0
2.9046879 3.8630593 0.084364928 104 8
3.1030974 4.1254368 -1.1917908 82 1
2.9102244 3.8690205 0.25372472 84 9
2.858979 3.7995114 -0.92427886 100 2
3.1728787 4.2151408 0.46157682 100 10
2.8755896 3.8188114 -0.7571429 100 3
3.0516438 4.0511417 0.62275237 50 11
2.8815169 3.8239007 -0.58789778 52 4
2.4382529 3.2356699 0.64169425 15 12
2.8951757 3.8406353 -0.4207879 100 5
2.1158924 2.8058476 0.68309623 42 13
2.9072056 3.853791 -0.25299203 136 6
1.8277107 2.421936 0.70049763 18 14
2.9017873 3.8452163 -0.084085695 100 7
1.6342038 2.1647303 0.7267639 30 15
3.1041985 4.1000218 -1.3779527 87 0
2.9198959 3.8565953 0.084434748 104 8
3.1179364 4.1166782 -1.1922406 76 1
2.9261255 3.8620217 0.25393409 97 9
2.8627381 3.7769907 -0.92122585 100 2
3.1731248 4.1849899 0.45948508 78 10
2.8906238 3.8124037 -0.75776863 100 3
3.0662622 4.0425811 0.62299615 40 11
2.9013801 3.823813 -0.58936024 43 4
2.4495304 3.2271407 0.64169425 15 12
2.900131 3.8193977 -0.41956773 100 5
2.1192496 2.7909968 0.68118817 41 13
2.9175525 3.8409493 -0.2527827 133 6
1.8404477 2.4220686 0.70229727 18 14
2.9151928 3.835063 -0.084085695 100 7
1.6359041 2.1513233 0.72417569 31 15
3.1215472 4.0916891 -1.3789879 92 0
2.9274046 3.8358166 0.084225312 104 8
3.1349037 4.1062236 -1.1926905 79 1
2.9426842 3.8544469 0.25414345 99 9
2.8813281 3.7727149 -0.92275238 100 2
3.1932833 4.1796622 0.46018231 100 10
2.9004438 3.7949975 -0.75651717 100 3
3.0733209 4.0197392 0.62128997 41 11
2.9172482 3.8142204 -0.58960396 107 4
2.4577444 3.2134321 0.64075565 15 12
2.9116886 3.8055789 -0.41921914 100 5
2.1275637 2.7797217 0.68042493 39 13
2.9298513 3.8265457 -0.25257334 128 6
1.8521048 2.4180777 0.70319706 18 14
2.9340925 3.8307033 -0.084225312 100 7
1.6390777 2.1391797 0.72210521 31 15
3.1358101 4.0807686 -1.3789879 90 0
2.9401059 3.8260899 0.084225312 101 8
3.1401889 4.0849915 -1.1895412 76 1
2.9609919 3.8504834 0.25456211 97 9
2.8896923 3.7564085 -0.92122585 100 2
3.2042055 4.1637549 0.45965937 93 10
2.9081929 3.7790968 -0.75526565 100 3
3.0805805 4.0016599 0.62007129 38 11
2.9274571 3.8013806 -0.58911645 100 4
2.4713552 3.2079651 0.64138144 15 12
2.9298203 3.8017037 -0.41991636 100 5
2.1259847 2.7586551 0.67699033 36 13
2.9425237 3.8168094 -0.25257334 136 6
1.8601127 2.4119229 0.70319706 16 14
2.9474473 3.8204374 -0.084225312 100 7
1.648896 2.1365032 0.72314042 31 15
3.1516907 4.0734024 -1.3800232 92 0
2.9583399 3.8221283 0.084364928 100 8
3.1556232 4.0755448 -1.1899912 79 1
2.9646292 3.8274925 0.25372472 102 9
2.9093459 3.7561185 -0.92351556 100 2
3.2253184 4.1625557 0.46070525 97 10
2.9237883 3.7720444 -0.75589144 100 3
3.0872312 3.9814706 0.61860883 39 11
2.9309745 3.7785912 -0.58716655 100 4
2.4849606 3.2024391 0.64200711 15 12
2.9448531 3.7951157 -0.42026496 100 5
2.1295829 2.7434621 0.67508227 33 13
2.9533784 3.8033607 -0.25236401 131 6
1.8589573 2.3931029 0.69959784 16 14
2.9656742 3.8164403 -0.084364928 100 7
1.6587145 2.1337855 0.72417569 31 15
3.1682644 4.0654244 -1.3810586 100 0
2.974124 3.8149321 0.084434748 101 8
3.1710279 4.0660424 -1.190441 78 1
2.9779706 3.8171215 0.25372472 97 9
2.9151924 3.7366533 -0.92122585 100 2
3.23983 4.1512709 0.46070525 93 10
2.9369364 3.761816 -0.75589144 100 3
3.1011095 3.9706705 0.61860883 39 11
2.9490359 3.7745934 -0.5881415 105 4
2.4863918 3.1812947 0.63950419 15 12
2.9605355 3.7879534 -0.42061362 100 5
2.1439815 2.7422001 0.67660874 30 13
2.9690986 3.7961738 -0.25257334 127 6
1.8685 2.3881347 0.70004773 19 14
2.9703496 3.795043 -0.084120601 100 7
1.6661534 2.1279819 0.72417569 31 15
3.1728945 4.0421824 -1.3769174 100 0
2.9923615 3.8108184 0.084574364 100 8
3.1912212 4.0626101 -1.1926905 79 1
2.9937463 3.8098435 0.25393409 99 9
2.9282193 3.726454 -0.92122585 100 2
3.2506063 4.1352382 0.46018231 100 10
2.9573772 3.7608573 -0.75776863 100 3
3.1149516 3.9598205 0.61860883 39 11
2.9634202 3.7658365 -0.58838522 113 4
2.4950387 3.1694911 0.63887841 15 12
2.9682374 3.7692499 -0.41974208 104 5
2.1547558 2.7362413 0.67699033 33 13
2.9885108 3.793632 -0.25309673 137 6
1.88165 2.3877196 0.70184731 20 14
2.9848156 3.7862222 -0.0841555 100 7
1.6663932 2.1130519 0.72106987 32 15
3.1900847 4.0335574 -1.3779527 100 0
2.9957209 3.7878032 0.084295124 101 8
3.2078025 4.0545015 -1.1935904 82 1
3.0119839 3.8056352 0.25435278 94 9
2.9491689 3.7249324 -0.92351556 100 2
3.2620306 4.1186099 0.45965937 91 10
2.9588733 3.7345104 -0.75463998 100 3
3.1262884 3.9458117 0.61812133 39 11
2.9802477 3.7601361 -0.58911645 110 4
2.5036337 3.1576662 0.63825274 16 12
2.9788992 3.7557445 -0.41939342 108 5
2.1489072 2.7083311 0.67202932 28 13
2.9974291 3.7763948 -0.25267801 136 6
1.8867528 2.3762288 0.70049763 18 14
3.0005002 3.778913 -0.084225312 100 7
1.6713564 2.1041965 0.7200346 31 15
3.2077551 4.0269313 -1.3795056 100 0
3.0095847 3.7767971 0.084295124 110 8
3.2153523 4.0335746 -1.1908909 79 1
3.025913 3.7945693 0.25435278 91 9
2.9597065 3.7115448 -0.92275238 100 2
3.2788715 4.1103139 0.46000803 97 10
2.9768207 3.7303345 -0.75589144 100 3
3.135777 3.9281206 0.61714637 37 11
2.9977248 3.7538419 -0.58984768 125 4
2.5176554 3.151556 0.63887841 15 12
2.9994535 3.7546623 -0.4204393 100 5
2.1509936 2.6916122 0.6697396 25 13
3.0080979 3.7627895 -0.25246868 139 6
1.8974707 2.3726716 0.70139742 18 14
3.01683 3.7710125 -0.084295124 100 7
1.6826782 2.1025817 0.72158754 32 15
3.2290466 4.0247493 -1.3826115 112 0
3.0227509 3.7662678 0.084295124 113 8
3.2233117 4.0147295 -1.1886414 76 1
3.0341368 3.7777557 0.25393409 89 9
2.9800198 3.7103755 -0.92504203 100 2
3.2981918 4.1050553 0.46070525 97 10
2.9922981 3.7230008 -0.75651717 95 3
3.1420054 3.9078689 0.61568397 37 11
3.0008581 3.7309797 -0.58789778 113 4
2.5286417 3.1427479 0.63887841 15 12
3.0137911 3.7457206 -0.42061362 100 5
2.1640685 2.6886764 0.67088449 21 13
3.0174572 3.7475982 -0.25215468 132 6
1.8935179 2.3508568 0.6968984 18 14
3.0324831 3.7635736 -0.084364928 100 7
1.6924325 2.0997028 0.72262281 31 15
3.243077 4.013453 -1.3826115 130 0
3.0383909 3.7588058 0.084364928 120 8
3.2434335 4.0110288 -1.1908909 79 1
3.0441365 3.7645662 0.25372472 89 9
2.9830763 3.6877387 -0.92198914 100 2
3.3099916 4.0904222 0.46035662 97 10
2.9990621 3.7048552 -0.75495279 95 3
3.1568778 3.8984194 0.61592776 40 11
3.0126109 3.718941 -0.58765399 100 4
2.5340736 3.1282072 0.63762695 16 12
3.0268471 3.7351785 -0.42061362 100 5
2.172205 2.67958 0.67050284 20 13
3.034292 3.7416985 -0.25246868 129 6
1.9041674 2.3472602 0.69779825 18 14
3.0399089 3.7472844 -0.084225312 100 7
1.6993858 2.0940793 0.72262281 31 15
3.2509689 3.9946167 -1.3800232 134 0
3.0584133 3.7580144 0.084574364 106 8
3.2579467 4.0017638 -1.1913409 76 1
3.0597827 3.757014 0.25393409 97 9
3.00089 3.6833925 -0.92351556 100 2
3.319216 4.0726647 0.45965937 97 10
3.0138264 3.6979527 -0.75557858 100 3
3.1572454 3.8725431 0.61349034 54 11
3.0299466 3.7150834 -0.58862901 104 4
2.5399837 3.1132197 0.63637549 16 12
3.0348289 3.7184153 -0.41991636 100 5
2.1748726 2.6647565 0.66859478 21 13
3.0555263 3.742445 -0.2532014 134 6
1.9094748 2.3379142 0.6968984 18 14
3.050441 3.7335522 -0.0841555 100 7
1.7017945 2.0821519 0.72055227 32 15
3.258075 3.9763434 -1.377435 139 0
3.0613725 3.7349427 0.084295124 107 8
3.2756028 3.9948864 -1.1926905 79 1
3.0779421 3.7524896 0.25435278 94 9
3.0081069 3.6673498 -0.92198914 100 2
3.335232 4.0647149 0.46000803 93 10
3.0279708 3.6889362 -0.75589144 100 3
3.151845 3.8384881 0.60983425 65 11
3.0454171 3.7075512 -0.58911645 101 4
2.560869 3.1165435 0.63887841 15 12
3.047142 3.7083316 -0.41991636 100 5
2.1791728 2.6510832 0.66706824 25 13
3.0673039 3.7302132 -0.25309673 134 6
1.9238144 2.3387594 0.69914788 19 14
3.0647233 3.7244275 -0.084190413 100 7
1.7078251 2.074707 0.7200346 33 15
3.2780843 3.9723954 -1.3800232 142 0
3.0743885 3.7242355 0.084295124 101 8
3.2771184 3.9684026 -1.1881915 84 1
3.0935671 3.7448013 0.25456211 94 9
3.0258927 3.6628804 -0.92351556 100 2
3.3494012 4.0530472 0.46000803 97 10
3.0433455 3.6813896 -0.75651717 100 3
3.1563702 3.8167536 0.60812807 76 11
3.0583413 3.6968973 -0.58911645 110 4
2.5666938 3.1014984 0.63762695 16 12
3.0651484 3.7038126 -0.42061362 100 5
2.18591 2.6404355 0.66630507 26 13
3.0713894 3.7087145 -0.25236401 131 6
1.9257499 2.3245265 0.6968984 16 14
3.0866385 3.7244842 -0.084434748 100 7
1.7162902 2.0702198 0.72055227 31 15
3.2943993 3.9639008 -1.3810586 142 0
3.0899277 3.7165558 0.084364928 113 8
3.2959363 3.9629316 -1.1899912 87 1
3.1053421 3.7324455 0.25445744 82 9
3.0386593 3.6522965 -0.92351556 100 2
3.3686242 4.0474586 0.46070525 93 10
3.0561783 3.670743 -0.75651717 100 3
3.1925404 3.8331692 0.61251533 39 11
3.0636005 3.6770504 -0.58765399 100 4
2.5711813 3.0849321 0.63606256 16 12
3.0780592 3.69309 -0.42061362 100 5
2.1925998 2.6297724 0.66554183 25 13
3.0817554 3.6949053 -0.25215468 126 6
1.9288591 2.3118048 0.69509882 18 14
3.0919333 3.7044752 -0.084225312 100 7
1.7284572 2.0701487 0.72262281 31 15
3.304497 3.947932 -1.3795056 140 0
3.1080182 3.7118795 0.084504552 107 8
3.3122494 3.9543924 -1.1908909 84 1
3.1132214 3.7154584 0.25403875 82 9
3.0463469 3.6356473 -0.92198914 100 2
3.3814533 4.0341473 0.46053094 100 10
3.0740492 3.6661081 -0.75776863 100 3
3.2122812 3.8296056 0.61373407 37 11
3.0789702 3.6693747 -0.5881415 116 4
2.5755837 3.0683742 0.6344983 15 12
3.0960548 3.6884277 -0.42131084 100 5
2.2068155 2.6281176 0.66706824 27 13
3.104912 3.6963589 -0.25299203 134 6
1.9319019 2.2990904 0.69329923 16 14
3.1048448 3.6936603 -0.084225312 100 7
1.7344302 2.0626237 0.72210521 30 15
3.3132782 3.9304638 -1.377435 137 0
3.1235332 3.7040658 0.084574364 100 8
3.328547 3.9457848 -1.1917908 84 1
3.1274614 3.7060943 0.25414345 97 9
3.0666175 3.6339934 -0.92427886 100 2
3.3929429 4.0192752 0.46018231 100 10
3.0868268 3.6553562 -0.75776863 100 3
3.2256303 3.8183684 0.61373407 38 11
3.0917592 3.6586056 -0.5881415 101 4
2.5913789 3.0653999 0.63574976 15 12
3.0992615 3.6648841 -0.41991636 100 5
2.2261183 2.6323903 0.67012119 21 13
3.1216648 3.6900735 -0.25330606 133 6
1.9424329 2.2953084 0.69419903 18 14
3.1177201 3.6827989 -0.084225312 100 7
1.7378737 2.0521345 0.72055227 32 15
3.3264103 3.916822 -1.3769174 135 0
3.1286783 3.6839941 0.084364928 101 8
3.3423011 3.9341412 -1.1917908 82 1
3.1481385 3.7042868 0.25477144 84 9
3.0799153 3.6227298 -0.92427886 100 2
3.4050708 4.0037761 0.45983368 100 10
3.0925245 3.6349895 -0.75589144 100 3
3.2312205 3.7980144 0.61227161 39 11
3.1096587 3.6538367 -0.58911645 100 4
2.5943809 3.0473101 0.63387251 15 12
3.1120348 3.6540439 -0.41991636 100 5
2.2484832 2.6391585 0.67393738 33 13
3.1364651 3.6801264 -0.25341073 136 6
1.950833 2.288173 0.69419903 18 14
3.1305554 3.6718943 -0.084225312 100 7
1.7462804 2.0475249 0.72106987 34 15
3.3450842 3.9110601 -1.3789879 129 0
3.1447592 3.6755419 0.084434748 100 8
3.3465595 3.9100211 -1.1881915 82 1
3.1642931 3.6957567 0.2549808 99 9
3.0925431 3.6119559 -0.92427886 100 2
3.3995845 3.9691684 0.45721903 71 10
3.1051934 3.6241732 -0.75589144 100 3
3.2347856 3.7740879 0.61032176 38 11
3.128197 3.6484432 -0.59009141 77 4
2.6145339 3.0482769 0.63606256 16 12
3.1325529 3.6522331 -0.42096224 100 5
2.2743018 2.6506624 0.67889845 48 13
3.1375842 3.6555169 -0.25246868 130 6
1.9613469 2.2843068 0.69509882 18 14
3.154417 3.6725304 -0.084504552 100 7
1.7625859 2.0513682 0.72469336 42 15
3.3587172 3.8993585 -1.3789879 127 0
3.1601818 3.6675711 0.084504552 101 8
3.3678207 3.9071729 -1.1908909 84 1
3.1693482 3.6756141 0.25435278 97 9
3.1076956 3.6041133 -0.92504203 100 2
3.2026024 3.7128696 0.42898056 100 10
3.1204054 3.6163037 -0.75651717 100 3
3.148062 3.6470654 0.59155381 29 11
3.1396172 3.6359985 -0.58984768 110 4
2.6251593 3.0391312 0.63606256 15 12
3.1452832 3.6412756 -0.42096224 100 5
2.2989435 2.6605341 0.68347788 61 13
3.1568565 3.6520963 -0.25299203 134 6
1.9591122 2.2656534 0.69149959 18 14
3.1619835 3.6554477 -0.084364928 100 7
1.7747927 2.0510461 0.7267639 47 15
3.3761046 3.8919895 -1.3805408 118 0
3.1782064 3.6625597 0.084644176 100 8
3.3814397 3.8953922 -1.1908909 82 1
3.1815186 3.6650846 0.25435278 84 9
3.1176822 3.5902793 -0.92427886 100 2
3.2181554 3.7046766 0.42932916 100 10
3.1381934 3.6113529 -0.75776863 100 3
3.1190982 3.5881135 0.58375424 132 11
3.1425402 3.6150808 -0.5881415 100 4
2.6248531 3.0184853 0.63355964 15 12
3.1592813 3.6317778 -0.42113656 100 5
2.3159485 2.6613798 0.68576753 61 13
3.1708965 3.6425619 -0.25309673 130 6
1.9666141 2.2591445 0.69149959 18 14
3.1714611 3.641927 -0.084295124 100 7
1.7853917 2.0495188 0.72831684 54 15
3.3839107 3.8749511 -1.3784703 113 0
3.1877022 3.6489887 0.084574364 113 8
3.3994691 3.8900259 -1.1926905 84 1
3.1962845 3.6575208 0.25456211 89 9
3.1295719 3.5799203 -0.92427886 100 2
3.4324055 3.924953 0.45617315 86 10
3.1527541 3.603899 -0.75839436 100 3
3.127059 3.5732682 0.58302301 129 11
3.1571269 3.6076264 -0.58862901 100 4
2.629643 3.0038195 0.63230819 15 12
3.1673706 3.6167839 -0.42061362 100 5
2.3247619 2.6536844 0.68576753 63 13
3.1948044 3.645546 -0.25403875 134 6
1.975379 2.2540767 0.69194949 19 14
3.1835215 3.6313889 -0.084295124 100 7
1.7807143 2.0305154 0.72365808 53 15
3.3941898 3.8608074 -1.377435 107 0
3.1918626 3.6293874 0.084364928 107 8
3.4149241 3.8816586 -1.1935904 82 1
3.2116704 3.6493409 0.25477144 89 9
3.1466131 3.575418 -0.92580527 100 2
3.478317 3.9509344 0.46053094 100 10
3.1646867 3.593425 -0.75839436 92 3
3.1808822 3.6105433 0.59082258 55 11
3.1723247 3.5995634 -0.58911645 104 4
2.6479509 3.0035117 0.63418543 15 12
3.1826129 3.6086938 -0.42096224 100 5
2.3257585 2.6371257 0.68347788 61 13
3.2029128 3.6304374 -0.25372472 137 6
1.9858145 2.2500894 0.69284928 14 14
3.1988258 3.6232517 -0.084364928 100 7
1.7941847 2.0315275 0.7262463 47 15
3.4147232 3.855571 -1.3800232 100 0
3.207165 3.6212168 0.084434748 100 8
3.4206979 3.8609636 -1.1908909 84 1
3.232337 3.6470764 0.2553995 84 9
3.1570928 3.5609224 -0.92504203 100 2
3.4927757 3.938158 0.46053094 100 10
3.1660366 3.5685036 -0.75557858 95 3
3.2843678 3.7018774 0.60764056 34 11
3.1888242 3.5929213 -0.58984768 107 4
2.6531737 2.9883409 0.63293391 15 12
3.1938643 3.5960746 -0.4207879 100 5
2.3314958 2.624181 0.68233299 65 13
3.2016037 3.6022515 -0.25257334 127 6
2.023829 2.2762926 0.70319706 13 14
3.2167664 3.6180434 -0.084504552 100 7
1.7999818 2.023808 0.72572863 34 15
3.4333012 3.8493969 -1.3820938 100 0
3.2284029 3.6183913 0.084644176 100 8
3.4374228 3.8513072 -1.1917908 87 1
3.2390308 3.6277568 0.25487614 82 9
3.1695011 3.5498827 -0.92504203 100 2
3.5144639 3.9348588 0.46157682 100 10
3.1811068 3.5603755 -0.75620425 100 3
3.2926221 3.6838953 0.60666561 37 11
3.1980014 3.5767705 -0.58911645 110 4
2.6614742 2.9756525 0.63230819 15 12
3.2136688 3.5917666 -0.42165947 100 5
2.3458786 2.6218781 0.68385947 65 13
3.226146 3.604449 -0.25351539 130 6
2.120157 2.3679383 0.7337904 20 14
3.2300081 3.6062269 -0.084504552 100 7
1.8576639 2.0733111 0.74591655 36 15
3.4499724 3.8396592 -1.383129 100 0
3.2436876 3.6100738 0.084713981 100 8
3.4534497 3.8421841 -1.1926905 84 1
3.2503397 3.6149423 0.25477144 86 9
3.1772416 3.5324006 -0.92351556 100 2
3.5181997 3.9101031 0.46018231 100 10
3.2113142 3.5677798 -0.76027155 94 3
3.3094463 3.676805 0.60739684 43 11
3.2131248 3.5685353 -0.58960396 116 4
2.6639121 2.9575381 0.630431 15 12
3.2275181 3.5820091 -0.42183378 100 5
2.3567865 2.6147213 0.68424112 63 13
3.2420092 3.5955672 -0.25372472 130 6
2.1183794 2.3485754 0.73019117 24 14
3.2372167 3.5889926 -0.084364928 100 7
1.8894793 2.0940647 0.75575161 42 15
3.4536142 3.8181696 -1.3795056 100 0
3.25895 3.601697 0.084783792 100 8
3.4668415 3.8301051 -1.1926905 87 1
3.2623105 3.6041429 0.25477144 97 9
3.1915731 3.5247569 -0.92427886 100 2
3.5338211 3.9013686 0.46053094 100 10
3.2138436 3.5468631 -0.7580815 100 3
3.3115959 3.6534631 0.60544699 43 11
3.2255592 3.5572999 -0.58960396 110 4
2.6683969 2.9428351 0.62917954 15 12
3.2313478 3.5624306 -0.4207879 100 5
2.3707209 2.6127079 0.68576753 61 13
3.2525713 3.5833187 -0.25362006 127 6
2.1274664 2.3429799 0.73064107 23 14
3.2477572 3.5767567 -0.08433003 100 7
1.8743312 2.0634782 0.74695182 36 15
3.4695218 3.8089476 -1.3805408 92 0
3.2627974 3.5819993 0.084574364 100 8
3.4821477 3.8214691 -1.1935904 84 1
3.2802546 3.5986369 0.25519016 94 9
3.2091475 3.5193977 -0.92580527 100 2
3.5447333 3.8860645 0.46018231 100 10
3.2269185 3.5376463 -0.75839436 100 3
3.3089755 3.6263301 0.6027658 68 11
3.240015 3.549515 -0.59009141 100 4
2.6893101 2.9451716 0.63168246 16 12
3.2451081 3.5526001 -0.42096224 100 5
2.3687799 2.5932348 0.68271458 63 13
3.2711737 3.5798841 -0.25414345 130 6
2.1404831 2.341666 0.73244065 22 14
3.2656212 3.5713 -0.084469646 100 7
1.8841299 2.0597742 0.74798709 38 15
3.4821329 3.7974219 -1.3805408 90 0
3.2752819 3.5705872 0.084574364 100 8
3.4875598 3.8006766 -1.1908909 87 1
3.2954946 3.5901093 0.2553995 97 9
3.2234554 3.5116298 -0.92656857 100 2
3.5629919 3.8801575 0.46087953 100 10
3.2419209 3.5292695 -0.75902009 100 3
3.3122091 3.6045282 0.60105962 72 11
3.2550735 3.541106 -0.59057891 110 4
2.7009115 2.9372194 0.63199526 16 12
3.2642312 3.5485849 -0.42183378 100 5
2.3804743 2.587842 0.68347788 61 13
3.2768888 3.5610943 -0.25362006 127 6
2.1433654 2.3284442 0.73064107 19 14
3.287549 3.5701771 -0.084713981 100 7
1.8886912 2.0503426 0.74695182 36 15
3.5012722 3.7903092 -1.3826115 96 0
3.2904389 3.5620711 0.084644176 113 8
3.5034518 3.7913413 -1.1917908 87 1
3.3025844 3.5727167 0.2549808 94 9
3.2403042 3.5041151 -0.92771345 100 2
3.5826008 3.8729241 0.46157682 100 10
3.2548339 3.5173643 -0.75902009 100 3
3.3342099 3.6031425 0.6027658 47 11
3.2633681 3.5253525 -0.58984768 95 4
2.7084634 2.9248757 0.63136959 16 12
3.2806609 3.541553 -0.42235672 100 5
2.3952825 2.5848582 0.68500435 59 13
3.2885604 3.5475962 -0.25351539 133 6
2.1426094 2.310571 0.7274918 13 14
3.2999904 3.5586803 -0.084713981 100 7
1.9181722 2.0678141 0.75575161 46 15
3.5197439 3.7837234 -1.3846819 99 0
3.3061976 3.5529141 0.084713981 113 8
3.5226343 3.7841811 -1.1935904 84 1
3.3150346 3.5611677 0.2549808 94 9
3.2471633 3.4870362 -0.92618686 100 2
3.5988152 3.8633094 0.46192542 100 10
3.2724781 3.5117629 -0.76027155 100 3
3.3541625 3.5981572 0.60398453 40 11
3.2857449 3.5235295 -0.59155381 114 4
2.7011437 2.8966217 0.62730229 16 12
3.2916436 3.5286238 -0.42218241 100 5
2.4042902 2.5764818 0.68500435 61 13
3.307739 3.5433941 -0.25403875 127 6
2.1626313 2.3158967 0.73154086 21 14
3.3042026 3.5383711 -0.084504552 100 7
1.9069157 2.0413423 0.7485047 34 15
3.5276482 3.7657735 -1.3826115 99 0
3.3234291 3.5477691 0.084853604 110 8
3.5378301 3.7753217 -1.1944902 91 1
3.3329098 3.5554018 0.2553995 99 9
3.2620025 3.478544 -0.92695016 100 2
3.6000094 3.8376462 0.46035662 97 10
3.2895122 3.5066531 -0.76152301 100 3
3.366075 3.5870152 0.60398453 39 11
3.2946932 3.5097203 -0.59106636 116 4
2.7166467 2.8929358 0.62855375 16 12
3.2984853 3.5113029 -0.42148519 100 5
2.4155087 2.5713568 0.68576753 57 13
3.3153672 3.5280399 -0.25372472 112 6
2.1609566 2.2987728 0.72839159 18 14
3.3206446 3.5311852 -0.084609263 100 7
1.9127053 2.0332668 0.74798709 30 15
3.5401175 3.7540536 -1.3826115 96 0
3.3275592 3.5274198 0.084644176 116 8
3.5509877 3.7629485 -1.1944902 91 1
3.350785 3.5495543 0.25581816 89 9
3.2735207 3.4677067 -0.92695016 100 2
3.619555 3.8329313 0.46122819 100 10
3.2935948 3.4865329 -0.75964588 100 3
3.3744862 3.5709143 0.6032533 44 11
3.3069239 3.4981992 -0.59106636 100 4
2.7213001 2.8776937 0.62730229 15 12
3.311481 3.5017922 -0.42165947 100 5
2.4244704 2.5629089 0.68576753 59 13
3.338644 3.5280521 -0.25456211 125 6
2.1716478 2.2940454 0.72929138 18 14
3.3439515 3.5311875 -0.08488851 100 7
1.9237766 2.0307856 0.74953997 42 15
3.5531995 3.7416744 -1.3826115 99 0
3.3453617 3.5215809 0.084783792 104 8
3.5614138 3.7477076 -1.1935904 88 1
3.3631544 3.537837 0.25581816 94 9
3.5426099 3.7266135 -0.9994576 100 2
3.6356597 3.8231599 0.46157682 100 10
3.3356974 3.5065024 -0.76652896 92 3
3.3787191 3.5504861 0.60179085 73 11
3.3218529 3.4895091 -0.59155381 100 4
2.7381392 2.8753297 0.62886661 16 12
3.3264313 3.4930978 -0.42200807 100 5
2.4252768 2.5459023 0.68347788 57 13
3.3454285 3.5105922 -0.25414345 133 6
2.1877096 2.2949147 0.73199081 24 14
3.3548763 3.5180469 -0.084853604 100 7
1.9201865 2.0128748 0.74539888 43 15
3.5689101 3.7320399 -1.3836466 99 0
3.3548687 3.5069928 0.084713981 113 8
3.5717804 3.7324362 -1.1926905 93 1
3.3699598 3.5203042 0.2553995 89 9
3.5936108 3.753933 -1.0101428 98 2
3.6544938 3.8162024 0.46227407 100 10
3.5993516 3.7573075 -0.82409686 77 3
3.3883457 3.5358028 0.60130334 104 11
3.5922713 3.747297 -0.63737667 83 4
2.7522602 2.8700323 0.62980521 16 12
3.4964495 3.644789 -0.4418796 100 5
2.4395857 2.543087 0.68500435 59 13
3.368726 3.5104203 -0.2549808 139 6
2.179512 2.2703948 0.726592 18 14
3.367137 3.5063138 -0.084853604 100 7
1.9312166 2.0103388 0.74695182 43 15
3.5879247 3.7244999 -1.3857172 96 0
3.3781898 3.5067813 0.084993221 101 8
3.5874927 3.7227511 -1.1935904 91 1
3.3849976 3.5113978 0.25560883 86 9
3.5950787 3.7280183 -1.0067083 99 2
3.6698406 3.8042152 0.46244836 93 10
3.6062396 3.7369835 -0.82253253 77 3
3.400665 3.5239558 0.60130334 75 11
3.6191187 3.7490168 -0.63981414 87 4
2.7554018 2.8533022 0.62824088 16 12
3.6323493 3.7600982 -0.45739332 95 5
2.4543469 2.5397761 0.68653083 57 13
3.6356034 3.7608354 -0.27413577 123 6
2.189173 2.2637928 0.72704184 22 14
3.5280948 3.6483529 -0.088588417 100 7
1.9422514 2.0077512 0.7485047 43 15
3.5955245 3.7064061 -1.3836466 99 0
3.4690056 3.5747402 0.086947888 87 8
3.6065416 3.7151711 -1.19539 93 1
3.4131529 3.5147264 0.25676021 80 9
3.6108069 3.7182624 -1.0074716 100 2
3.6747665 3.7828081 0.46140248 97 10
3.6275229 3.7328718 -0.82440978 75 3
3.4121773 3.5100429 0.60105962 65 11
3.6328342 3.7357273 -0.63981414 86 4
2.7603309 2.8375211 0.62698942 16 12
3.6357281 3.7373981 -0.45617315 89 5
2.4631982 2.5311928 0.68653083 56 13
3.6584604 3.7581406 -0.27486849 117 6
2.1997814 2.2589288 0.72794163 22 14
3.6488891 3.745688 -0.091276079 100 7
1.9401586 1.9909345 0.74488121 43 15
3.6057379 3.6910713 -1.3826115 100 0
3.6673465 3.7528238 0.091590226 83 8
3.6249382 3.7081323 -1.1971896 96 1
3.6837342 3.7669659 0.27612451 68 9
3.626507 3.7084455 -1.0082349 99 2
3.6879499 3.7699571 0.46140248 93 10
3.635005 3.7145379 -0.8231582 77 3
3.4271836 3.5009501 0.60154712 63 11
3.6541862 3.7315319 -0.64127654 86 4
2.772984 2.8306897 0.62761515 16 12
3.6515417 3.72753 -0.45652178 89 5
2.4665203 2.5169718 0.68500435 59 13
3.67715 3.7510512 -0.27528715 117 6
2.2049248 2.2484531 0.72704184 22 14
